-0.942809	1.15461e-16	0.333333
0.942809	0	-0.333333
-0.282597	0.282597	0.916667
0.666667	-0.666667	-0.333333
-0.666667	0.666667	-0.333333
0.282597	-0.282597	0.916667
5.77304e-17	0.942809	-0.333333
-1.73191e-16	-0.942809	0.333333
-0.282597	-0.282597	-0.916667
0.666667	0.666667	0.333333
-0.666667	-0.666667	0.333333
0.282597	0.282597	-0.916667
-0.942809	1.15461e-16	-0.333333
0.942809	0	0.333333
-0.666667	0.666667	0.333333
0.282597	-0.282597	-0.916667
-0.282597	0.282597	-0.916667
0.666667	-0.666667	0.333333
5.77304e-17	0.942809	0.333333
-1.73191e-16	-0.942809	-0.333333
-0.666667	-0.666667	-0.333333
0.282597	0.282597	0.916667
-0.282597	-0.282597	0.916667
0.666667	0.666667	-0.333333
-0.92388	0.382683	6.12323e-17
0.92388	-0.382683	6.12323e-17
-0.688619	0.285235	0.666667
0.688619	-0.285235	-0.666667
-0.688619	0.285235	-0.666667
0.688619	-0.285235	0.666667
0.382683	0.92388	6.12323e-17
-0.382683	-0.92388	6.12323e-17
-0.285235	-0.688619	-0.666667
0.285235	0.688619	0.666667
-0.285235	-0.688619	0.666667
0.285235	0.688619	-0.666667
-0.92388	-0.382683	6.12323e-17
0.92388	0.382683	6.12323e-17
-0.285235	0.688619	0.666667
0.285235	-0.688619	-0.666667
-0.285235	0.688619	-0.666667
0.285235	-0.688619	0.666667
-0.382683	0.92388	6.12323e-17
0.382683	-0.92388	6.12323e-17
-0.688619	-0.285235	-0.666667
0.688619	0.285235	0.666667
-0.688619	-0.285235	0.666667
0.688619	0.285235	-0.666667
-0.866025	1.06058e-16	0.5
0.866025	0	-0.5
-0.143584	0.143584	0.979167
0.697217	-0.697217	-0.166667
-0.697217	0.697217	-0.166667
0.143584	-0.143584	0.979167
5.30288e-17	0.866025	-0.5
-1.59086e-16	-0.866025	0.5
-0.143584	-0.143584	-0.979167
0.697217	0.697217	0.166667
-0.697217	-0.697217	0.166667
0.143584	0.143584	-0.979167
-0.986013	1.20752e-16	-0.166667
0.986013	0	0.166667
-0.612372	0.612372	0.5
0.412216	-0.412216	-0.8125
-0.412216	0.412216	-0.8125
0.612372	-0.612372	0.5
6.03759e-17	0.986013	0.166667
-1.81128e-16	-0.986013	-0.166667
-0.612372	-0.612372	-0.5
0.412216	0.412216	0.8125
-0.412216	-0.412216	0.8125
0.612372	0.612372	-0.5
-0.910958	0.377331	0.166667
0.910958	-0.377331	-0.166667
-0.563097	0.150881	0.8125
0.800103	-0.331414	-0.5
-0.800103	0.331414	-0.5
0.563097	-0.150881	0.8125
0.377331	0.910958	-0.166667
-0.377331	-0.910958	0.166667
-0.150881	-0.563097	-0.8125
0.331414	0.800103	0.5
-0.331414	-0.800103	0.5
0.150881	0.563097	-0.8125
-0.910958	-0.377331	0.166667
0.910958	0.377331	-0.166667
-0.150881	0.563097	0.8125
0.331414	-0.800103	-0.5
-0.331414	0.800103	-0.5
0.150881	-0.563097	0.8125
-0.377331	0.910958	-0.166667
0.377331	-0.910958	0.166667
-0.563097	-0.150881	-0.8125
0.800103	0.331414	0.5
-0.800103	-0.331414	0.5
0.563097	0.150881	-0.8125
-0.986013	1.20752e-16	0.166667
0.986013	0	-0.166667
-0.412216	0.412216	0.8125
0.612372	-0.612372	-0.5
-0.612372	0.612372	-0.5
0.412216	-0.412216	0.8125
6.03759e-17	0.986013	-0.166667
-1.81128e-16	-0.986013	0.166667
-0.412216	-0.412216	-0.8125
0.612372	0.612372	0.5
-0.612372	-0.612372	0.5
0.412216	0.412216	-0.8125
-0.866025	1.06058e-16	-0.5
0.866025	0	0.5
-0.697217	0.697217	0.166667
0.143584	-0.143584	-0.979167
-0.143584	0.143584	-0.979167
0.697217	-0.697217	0.166667
5.30288e-17	0.866025	0.5
-1.59086e-16	-0.866025	-0.5
-0.697217	-0.697217	-0.166667
0.143584	0.143584	0.979167
-0.143584	-0.143584	0.979167
0.697217	0.697217	-0.166667
-0.910958	0.377331	-0.166667
0.910958	-0.377331	0.166667
-0.800103	0.331414	0.5
0.563097	-0.150881	-0.8125
-0.563097	0.150881	-0.8125
0.800103	-0.331414	0.5
0.377331	0.910958	0.166667
-0.377331	-0.910958	-0.166667
-0.331414	-0.800103	-0.5
0.150881	0.563097	0.8125
-0.150881	-0.563097	0.8125
0.331414	0.800103	-0.5
-0.910958	-0.377331	-0.166667
0.910958	0.377331	0.166667
-0.331414	0.800103	0.5
0.150881	-0.563097	-0.8125
-0.150881	0.563097	-0.8125
0.331414	-0.800103	0.5
-0.377331	0.910958	0.166667
0.377331	-0.910958	-0.166667
-0.800103	-0.331414	-0.5
0.563097	0.150881	0.8125
-0.563097	-0.150881	0.8125
0.800103	0.331414	-0.5
-0.924693	0.183933	0.333333
0.924693	-0.183933	-0.333333
-0.369231	0.15294	0.916667
0.783917	-0.523797	-0.333333
-0.783917	0.523797	-0.333333
0.369231	-0.15294	0.916667
0.183933	0.924693	-0.333333
-0.183933	-0.924693	0.333333
-0.15294	-0.369231	-0.916667
0.523797	0.783917	0.333333
-0.523797	-0.783917	0.333333
0.15294	0.369231	-0.916667
-0.924693	0.183933	-0.333333
0.924693	-0.183933	0.333333
-0.783917	0.523797	0.333333
0.369231	-0.15294	-0.916667
-0.369231	0.15294	-0.916667
0.783917	-0.523797	0.333333
0.183933	0.924693	0.333333
-0.183933	-0.924693	-0.333333
-0.523797	-0.783917	-0.333333
0.15294	0.369231	0.916667
-0.15294	-0.369231	0.916667
0.523797	0.783917	-0.333333
-0.83147	0.55557	6.12323e-17
0.83147	-0.55557	6.12323e-17
-0.731034	0.145412	0.666667
0.731034	-0.145412	-0.666667
-0.731034	0.145412	-0.666667
0.731034	-0.145412	0.666667
0.55557	0.83147	6.12323e-17
-0.55557	-0.83147	6.12323e-17
-0.145412	-0.731034	-0.666667
0.145412	0.731034	0.666667
-0.145412	-0.731034	0.666667
0.145412	0.731034	-0.666667
-0.980785	-0.19509	6.12323e-17
0.980785	0.19509	6.12323e-17
-0.414098	0.619741	0.666667
0.414098	-0.619741	-0.666667
-0.414098	0.619741	-0.666667
0.414098	-0.619741	0.666667
-0.19509	0.980785	6.12323e-17
0.19509	-0.980785	6.12323e-17
-0.619741	-0.414098	-0.666667
0.619741	0.414098	0.666667
-0.619741	-0.414098	0.666667
0.619741	0.414098	-0.666667
-0.924693	-0.183933	0.333333
0.924693	0.183933	-0.333333
-0.15294	0.369231	0.916667
0.523797	-0.783917	-0.333333
-0.523797	0.783917	-0.333333
0.15294	-0.369231	0.916667
-0.183933	0.924693	-0.333333
0.183933	-0.924693	0.333333
-0.369231	-0.15294	-0.916667
0.783917	0.523797	0.333333
-0.783917	-0.523797	0.333333
0.369231	0.15294	-0.916667
-0.924693	-0.183933	-0.333333
0.924693	0.183933	0.333333
-0.523797	0.783917	0.333333
0.15294	-0.369231	-0.916667
-0.15294	0.369231	-0.916667
0.523797	-0.783917	0.333333
-0.183933	0.924693	0.333333
0.183933	-0.924693	-0.333333
-0.783917	-0.523797	-0.333333
0.369231	0.15294	0.916667
-0.369231	-0.15294	0.916667
0.783917	0.523797	-0.333333
-0.980785	0.19509	6.12323e-17
0.980785	-0.19509	6.12323e-17
-0.619741	0.414098	0.666667
0.619741	-0.414098	-0.666667
-0.619741	0.414098	-0.666667
0.619741	-0.414098	0.666667
0.19509	0.980785	6.12323e-17
-0.19509	-0.980785	6.12323e-17
-0.414098	-0.619741	-0.666667
0.414098	0.619741	0.666667
-0.414098	-0.619741	0.666667
0.414098	0.619741	-0.666667
-0.83147	-0.55557	6.12323e-17
0.83147	0.55557	6.12323e-17
-0.145412	0.731034	0.666667
0.145412	-0.731034	-0.666667
-0.145412	0.731034	-0.666667
0.145412	-0.731034	0.666667
-0.55557	0.83147	6.12323e-17
0.55557	-0.83147	6.12323e-17
-0.731034	-0.145412	-0.666667
0.731034	0.145412	0.666667
-0.731034	-0.145412	0.666667
0.731034	0.145412	-0.666667
-0.812233	9.94698e-17	0.583333
0.812233	0	-0.583333
-0.0720748	0.0720748	0.994792
0.704647	-0.704647	-0.0833333
-0.704647	0.704647	-0.0833333
0.0720748	-0.0720748	0.994792
4.97349e-17	0.812233	-0.583333
-1.49205e-16	-0.812233	0.583333
-0.0720748	-0.0720748	-0.994792
0.704647	0.704647	0.0833333
-0.704647	-0.704647	0.0833333
0.0720748	0.0720748	-0.994792
-0.996522	1.22039e-16	-0.0833333
0.996522	0	0.0833333
-0.574335	0.574335	0.583333
0.47185	-0.47185	-0.744792
-0.47185	0.47185	-0.744792
0.574335	-0.574335	0.583333
6.10194e-17	0.996522	0.0833333
-1.83058e-16	-0.996522	-0.0833333
-0.574335	-0.574335	-0.583333
0.47185	0.47185	0.744792
-0.47185	-0.47185	0.744792
0.574335	0.574335	-0.583333
-0.894543	0.370532	0.25
0.894543	-0.370532	-0.25
-0.487344	0.0771878	0.869792
0.839861	-0.347882	-0.416667
-0.839861	0.347882	-0.416667
0.487344	-0.0771878	0.869792
0.370532	0.894543	-0.25
-0.370532	-0.894543	0.25
-0.0771878	-0.487344	-0.869792
0.347882	0.839861	0.416667
-0.347882	-0.839861	0.416667
0.0771878	0.487344	-0.869792
-0.894543	-0.370532	0.25
0.894543	0.370532	-0.25
-0.0771878	0.487344	0.869792
0.347882	-0.839861	-0.416667
-0.347882	0.839861	-0.416667
0.0771878	-0.487344	0.869792
-0.370532	0.894543	-0.25
0.370532	-0.894543	0.25
-0.487344	-0.0771878	-0.869792
0.839861	0.347882	0.416667
-0.839861	-0.347882	0.416667
0.487344	0.0771878	-0.869792
-0.968246	1.18576e-16	0.25
0.968246	0	-0.25
-0.3489	0.3489	0.869792
0.642802	-0.642802	-0.416667
-0.642802	0.642802	-0.416667
0.3489	-0.3489	0.869792
5.9288e-17	0.968246	-0.25
-1.77864e-16	-0.968246	0.25
-0.3489	-0.3489	-0.869792
0.642802	0.642802	0.416667
-0.642802	-0.642802	0.416667
0.3489	0.3489	-0.869792
-0.909059	1.11328e-16	-0.416667
0.909059	0	0.416667
-0.684653	0.684653	0.25
0.213954	-0.213954	-0.953125
-0.213954	0.213954	-0.953125
0.684653	-0.684653	0.25
5.56638e-17	0.909059	0.416667
-1.66991e-16	-0.909059	-0.416667
-0.684653	-0.684653	-0.25
0.213954	0.213954	0.953125
-0.213954	-0.213954	0.953125
0.684653	0.684653	-0.25
-0.920666	0.381352	-0.0833333
0.920666	-0.381352	0.0833333
-0.750405	0.310828	0.583333
0.629851	-0.220394	-0.744792
-0.629851	0.220394	-0.744792
0.750405	-0.310828	0.583333
0.381352	0.920666	0.0833333
-0.381352	-0.920666	-0.0833333
-0.310828	-0.750405	-0.583333
0.220394	0.629851	0.744792
-0.220394	-0.629851	0.744792
0.310828	0.750405	-0.583333
-0.920666	-0.381352	-0.0833333
0.920666	0.381352	0.0833333
-0.310828	0.750405	0.583333
0.220394	-0.629851	-0.744792
-0.220394	0.629851	-0.744792
0.310828	-0.750405	0.583333
-0.381352	0.920666	0.0833333
0.381352	-0.920666	-0.0833333
-0.750405	-0.310828	-0.583333
0.629851	0.220394	0.744792
-0.629851	-0.220394	0.744792
0.750405	0.310828	-0.583333
-0.891592	0.177349	0.416667
0.891592	-0.177349	-0.416667
-0.292267	0.0783126	0.953125
0.805067	-0.537929	-0.25
-0.805067	0.537929	-0.25
0.292267	-0.0783126	0.953125
0.177349	0.891592	-0.416667
-0.177349	-0.891592	0.416667
-0.0783126	-0.292267	-0.953125
0.537929	0.805067	0.25
-0.537929	-0.805067	0.25
0.0783126	0.292267	-0.953125
-0.949641	0.188895	-0.25
0.949641	-0.188895	0.25
-0.755855	0.505046	0.416667
0.43964	-0.224008	-0.869792
-0.43964	0.224008	-0.869792
0.755855	-0.505046	0.416667
0.188895	0.949641	0.25
-0.188895	-0.949641	-0.25
-0.505046	-0.755855	-0.416667
0.224008	0.43964	0.869792
-0.224008	-0.43964	0.869792
0.505046	0.755855	-0.416667
-0.828578	0.553638	0.0833333
0.828578	-0.553638	-0.0833333
-0.663101	0.0747136	0.744792
0.796626	-0.158459	-0.583333
-0.796626	0.158459	-0.583333
0.663101	-0.0747136	0.744792
0.553638	0.828578	-0.0833333
-0.553638	-0.828578	0.0833333
-0.0747136	-0.663101	-0.744792
0.158459	0.796626	0.583333
-0.158459	-0.796626	0.583333
0.0747136	0.663101	-0.744792
-0.977374	-0.194412	0.0833333
0.977374	0.194412	-0.0833333
-0.355023	0.565017	0.744792
0.451252	-0.675347	-0.583333
-0.451252	0.675347	-0.583333
0.355023	-0.565017	0.744792
-0.194412	0.977374	-0.0833333
0.194412	-0.977374	0.0833333
-0.565017	-0.355023	-0.744792
0.675347	0.451252	0.583333
-0.675347	-0.451252	0.583333
0.565017	0.355023	-0.744792
-0.891592	-0.177349	0.416667
0.891592	0.177349	-0.416667
-0.0783126	0.292267	0.953125
0.537929	-0.805067	-0.25
-0.537929	0.805067	-0.25
0.0783126	-0.292267	0.953125
-0.177349	0.891592	-0.416667
0.177349	-0.891592	0.416667
-0.292267	-0.0783126	-0.953125
0.805067	0.537929	0.25
-0.805067	-0.537929	0.25
0.292267	0.0783126	-0.953125
-0.949641	-0.188895	-0.25
0.949641	0.188895	0.25
-0.505046	0.755855	0.416667
0.224008	-0.43964	-0.869792
-0.224008	0.43964	-0.869792
0.505046	-0.755855	0.416667
-0.188895	0.949641	0.25
0.188895	-0.949641	-0.25
-0.755855	-0.505046	-0.416667
0.43964	0.224008	0.869792
-0.43964	-0.224008	0.869792
0.755855	0.505046	-0.416667
-0.977374	0.194412	0.0833333
0.977374	-0.194412	-0.0833333
-0.565017	0.355023	0.744792
0.675347	-0.451252	-0.583333
-0.675347	0.451252	-0.583333
0.565017	-0.355023	0.744792
0.194412	0.977374	-0.0833333
-0.194412	-0.977374	0.0833333
-0.355023	-0.565017	-0.744792
0.451252	0.675347	0.583333
-0.451252	-0.675347	0.583333
0.355023	0.565017	-0.744792
-0.828578	-0.553638	0.0833333
0.828578	0.553638	-0.0833333
-0.0747136	0.663101	0.744792
0.158459	-0.796626	-0.583333
-0.158459	0.796626	-0.583333
0.0747136	-0.663101	0.744792
-0.553638	0.828578	-0.0833333
0.553638	-0.828578	0.0833333
-0.663101	-0.0747136	-0.744792
0.796626	0.158459	0.583333
-0.796626	-0.158459	0.583333
0.663101	0.0747136	-0.744792
-0.909059	1.11328e-16	0.416667
0.909059	0	-0.416667
-0.213954	0.213954	0.953125
0.684653	-0.684653	-0.25
-0.684653	0.684653	-0.25
0.213954	-0.213954	0.953125
